# .PCD v0.7 - Point Cloud Data file format
VERSION 0.7
FIELDS x y z
SIZE 4 4 4
TYPE F F F
COUNT 1 1 1
WIDTH 1411
HEIGHT 1
VIEWPOINT 0 0 0 1 0 0 0
POINTS 1411
DATA ascii
1.0026953 0.41607422 0.33452123
0.020460485 0.45112485 0.33103532
0.0018726634 0.42450672 0.33460981
0.99753964 0.42467278 0.33647186
1.0025944 0.42518076 0.33561194
-0.0027688504 0.43404955 0.33507806
0.0017141368 0.43484735 0.33539447
0.99754 0.43420976 0.33648273
1.0021116 0.43483037 0.33571422
-0.002509359 0.44368052 0.33627141
0.0017496203 0.44541577 0.33426476
0.9979704 0.4446018 0.3362456
1.0025114 0.44445989 0.3351033
-0.0025855363 0.45455083 0.33547109
0.0018704955 0.45418116 0.33516884
0.9973526 0.45425132 0.3347767
1.0025896 0.45549008 0.33522594
-0.0030332308 0.48498222 0.33187258
0.0019924848 0.46498719 0.33539173
0.9980315 0.46292719 0.33458513
1.0021223 0.46584761 0.33518165
-0.0022486353 0.47534472 0.3349441
0.0020001312 0.47524512 0.3359198
0.99787968 0.4735828 0.33527532
1.0023817 0.47553545 0.33515212
-0.0027116195 0.48482084 0.33453083
0.0019486103 0.48515639 0.3351922
0.99814922 0.48212153 0.33516324
1.0026531 0.48496491 0.33441249
-0.0022680799 0.49566776 0.33508119
0.0018683891 0.49452388 0.33497518
0.99839389 0.49236697 0.33431396
1.0027175 0.49421465 0.33399513
-0.0026615281 0.51278049 0.33114719
0.0019058469 0.50452936 0.33469
0.99816436 0.50487679 0.33442906
1.002301 0.50431931 0.3348825
-0.0026322324 0.51576108 0.33405355
0.0019580515 0.51488835 0.33555701
0.99810386 0.51801062 0.33539024
1.0024033 0.51540685 0.33429426
-0.0029154881 0.52476716 0.33485481
0.0020194666 0.52396631 0.33542353
0.9980613 0.52579325 0.33600944
1.002605 0.52417445 0.33461463
-0.0027031107 0.53450555 0.334815
0.0019406222 0.53450096 0.33577153
0.99811822 0.53561628 0.33642572
1.0024148 0.53474993 0.3347328
-0.0030277832 0.54480857 0.33580521
0.001901545 0.54532462 0.33532864
0.99779487 0.54412603 0.33519691
1.0026803 0.54579526 0.33511925
-0.0022212809 0.54885656 0.33226272
0.001836216 0.55544835 0.33456686
0.9976148 0.55447865 0.33484307
1.0025989 0.55525631 0.33528191
-0.0025482967 0.56621766 0.33652499
0.0016147332 0.56513518 0.33501935
0.99786901 0.5656184 0.33568081
1.0022252 0.56529313 0.33484554
-0.0026623751 0.57537717 0.33533829
0.001715389 0.57520205 0.33446538
0.99786103 0.57523513 0.33616459
1.0024924 0.57560921 0.33523524
-0.0027797446 0.58443332 0.33494985
0.0017935418 0.58482593 0.33516219
0.99786675 0.58533806 0.33691853
1.0025479 0.58481127 0.33504969
-0.0027575251 0.5950079 0.33490232
0.0017285825 0.59485304 0.33426589
0.99783105 0.59464067 0.33493969
1.002453 0.59486705 0.33494511
-0.0024372414 0.58207828 0.33089101
0.0018005737 0.60532951 0.33493063
0.99791068 0.60552359 0.33535677
1.0026166 0.60529989 0.3349919
-0.0024169406 0.61517882 0.33487722
0.0018381224 0.61569041 0.3347092
0.99798286 0.61759633 0.33380443
1.0027598 0.61490607 0.33556351
-0.0027579761 0.62448442 0.33554819
0.0016989829 0.62532705 0.33618498
0.99805039 0.62756222 0.33424363
1.0018488 0.62525624 0.3348814
-0.0025537915 0.63572198 0.33531258
0.0016974283 0.63533056 0.33621493
0.99754649 0.6364978 0.33586103
1.0023202 0.63544887 0.33499354
-0.0026422434 0.64616638 0.33480722
0.001670256 0.64539957 0.3349258
0.99811471 0.64462829 0.33485952
1.0024563 0.64549762 0.33495414
0.015129702 0.62294692 0.33150718
0.0015105305 0.65542889 0.33570313
0.99832493 0.6551559 0.33655971
1.0022784 0.65479881 0.334952
-0.0027335898 0.6647622 0.33614188
0.0015501161 0.66533297 0.33526799
0.998016 0.6651479 0.33593807
1.0022441 0.66525787 0.33532444
-0.002580069 0.67516983 0.33737567
0.0016001748 0.67502308 0.33539909
0.99804288 0.67510515 0.33681327
1.0027409 0.67497033 0.33593521
-0.002461635 0.68605399 0.33575207
0.001547428 0.68500787 0.33534986
0.99803835 0.68547291 0.33597231
1.0023789 0.6855281 0.33550301
-0.0026622773 0.69529212 0.33577979
0.0017604055 0.69531131 0.33645427
0.99847072 0.69440764 0.33413908
1.0024058 0.69532675 0.33470717
-0.0027560603 0.70487106 0.33588386
0.0016141792 0.70559466 0.3359386
0.99799412 0.70490956 0.33428824
1.0023918 0.70488763 0.33527645
0.020755742 0.67951441 0.33084661
0.0017494906 0.71552676 0.33510408
0.99791431 0.71584731 0.33374768
1.002287 0.71445155 0.33512431
-0.0026265953 0.7252028 0.33506653
0.0016163085 0.72530383 0.3358593
0.99764758 0.72422695 0.33533728
1.0026598 0.72474569 0.33484867
-0.0028089818 0.73463333 0.33497769
0.001651096 0.73512799 0.33554885
0.99780899 0.73443985 0.33488312
1.0020455 0.73501438 0.33475783
-0.0022719637 0.74515462 0.3354125
0.0017852539 0.74479651 0.33579385
0.99791795 0.7449652 0.33452907
1.00227 0.74480617 0.33513972
-0.0024209176 0.75588 0.335933
0.0017951928 0.75481945 0.3357338
0.99776536 0.75533789 0.33714101
1.0024574 0.75535625 0.33494607
-0.0022360531 0.76550728 0.33536908
0.0014902711 0.76500559 0.33549726
0.99769479 0.7647087 0.33667597
1.0020772 0.76482838 0.33476302
0.024226824 0.7844547 0.3317616
0.0017109265 0.77503389 0.33511937
0.99784261 0.77405751 0.33595705
1.0024524 0.77496642 0.33517313
-0.0024709408 0.78616852 0.33522445
0.0017407427 0.78500593 0.33632886
0.99821293 0.78453821 0.33616018
1.0026319 0.7856971 0.33509803
-0.0024221342 0.79536378 0.3343516
0.0015914645 0.79539436 0.33539706
0.99786794 0.79575515 0.33608586
1.0022093 0.79511654 0.33461481
-0.0028170801 0.80541891 0.33508718
0.0014831384 0.80460674 0.33515269
0.99812943 0.80394685 0.33409312
1.0025002 0.80458462 0.3346864
-0.0026097859 0.81579584 0.33618507
0.0014857609 0.81449062 0.33468357
0.99788815 0.81477064 0.33428341
1.002478 0.81516916 0.33580935
-0.0021377241 0.82536036 0.33497259
0.0013807135 0.82563239 0.33412006
0.9982053 0.82519847 0.3352105
1.0021758 0.8254624 0.33519885
0.05031275 0.84041369 0.33103672
0.0015838671 0.83493638 0.33397037
0.99784309 0.83539313 0.33378977
1.0024625 0.83531618 0.33523268
-0.0028956837 0.84595221 0.33555755
0.001458107 0.8452726 0.33513772
0.99821359 0.84614503 0.334555
1.0020504 0.84506661 0.33542415
-0.0022560363 0.85655415 0.33623222
0.001244851 0.85555249 0.33528501
0.99819374 0.85577995 0.33541396
1.0022705 0.85539711 0.33499846
-0.0026175398 0.86594808 0.33479381
0.0015377275 0.86554068 0.33422238
0.99785787 0.86556852 0.3356601
1.0022727 0.86484152 0.33499002
-0.0019346162 0.87441325 0.33450705
0.0012777566 0.87514603 0.335235
0.99790275 0.87470102 0.33537829
1.001933 0.87514001 0.33563578
-0.0024145627 0.88496178 0.33530009
0.0013722606 0.88526946 0.3333064
0.99836856 0.88444114 0.33559909
1.0023774 0.88487428 0.33523342
-0.0026547457 0.89569473 0.33599383
0.0014421946 0.89387089 0.3348895
0.9979161 0.89406234 0.33471489
1.0024405 0.89525747 0.33527231
-0.002304151 0.90452439 0.33559492
0.0017831911 0.90410405 0.33563015
0.99806225 0.9031685 0.33554956
1.0024072 0.90577316 0.3354314
0.056361202 0.90523225 0.33047575
0.0016618347 0.91455424 0.33568397
0.99819893 0.91424006 0.33483166
1.0025567 0.91536421 0.3353965
-0.0027292336 0.92493039 0.33532202
0.0017117891 0.92469782 0.33568045
0.99811345 0.9252122 0.33584648
1.0025325 0.92480528 0.33486328
-0.0027619379 0.93441218 0.3350153
0.0017205671 0.93515319 0.33469442
0.99811947 0.93494052 0.33605862
1.002584 0.93549156 0.33451486
-0.0025332342 0.94483697 0.3353104
0.0015583001 0.94466728 0.33545837
0.99822611 0.94557607 0.33585796
1.0026871 0.94521093 0.33557603
-0.0025269054 0.95555419 0.33520055
0.0016893302 0.95397449 0.33459869
0.99812794 0.95590937 0.33511612
1.00256 0.95494223 0.334851
-0.0028194524 0.96555978 0.3349978
0.001508298 0.96399701 0.33448726
0.99807483 0.96354562 0.33614475
1.0022069 0.96524584 0.3352921
-0.0022406538 0.97507054 0.33500397
0.0014829844 0.94114846 0.33154306
0.99828213 0.97485697 0.33536121
1.0022638 0.97552848 0.33496201
-0.0022591893 0.98551506 0.33557057
0.0014301253 0.98508608 0.3360512
0.99797654 0.9852919 0.33395344
1.0023433 0.98475802 0.33505151
-0.0025839715 0.99435449 0.33538729
0.094436966 0.89621466 0.32597026
0.99834144 0.99574423 0.33454728
1.0022093 0.99475741 0.33536872
-0.0024903098 1.0025306 0.33733067
0.080232158 0.92158496 0.3277975
0.10914319 1.0020039 0.32002461
0.0238334 0.98831493 0.32928038
0.032020882 0.94753212 0.32588643
0.10756616 0.89688152 0.32443437
0.10679337 0.91881531 0.3267577
0.1410239 0.99538374 0.31882685
0.12192359 0.98540747 0.32959577
0.11346018 0.95342958 0.32784975
0.10547623 0.96784091 0.33095837
0.12910663 0.92795664 0.32698566
0.15261437 0.9931944 0.3218973
0.14696199 0.97893679 0.32811669
0.1606258 0.98382646 0.33198014
0.14097896 0.94718933 0.3278639
0.15575944 0.97377801 0.33199996
0.16574834 1.0022585 0.33055839
0.19649704 0.98956883 0.3272258
0.20720357 0.9712109 0.32591671
0.23305784 0.93387693 0.32383871
0.22723678 0.97120452 0.33113179
0.24319352 1.0020103 0.33005619
0.24406515 1.0023127 0.33199385
0.22951899 0.99574316 0.33215299
0.23624267 0.98212463 0.33016768
0.2762922 0.88986385 0.31836233
0.27322578 0.93793118 0.32634392
0.27947316 1.0025405 0.33078927
0.27762705 0.99830806 0.33107039
0.31724778 0.99003416 0.33088806
0.32716453 0.98185241 0.3304078
0.3339887 0.97648931 0.33058381
0.31400907 0.94198912 0.3261129
0.32350171 0.92815781 0.32400107
0.33557898 1.0028663 0.32569179
0.3761251 0.99599367 0.33080187
0.35437563 0.98772395 0.3306672
0.36200562 0.9744007 0.32968044
0.3894271 0.9701376 0.32991081
0.3994292 0.97807252 0.33124962
0.41073075 1.0014728 0.32908919
0.42013186 0.99622816 0.32456702
0.46417129 0.97516131 0.32382321
0.41902244 0.97826976 0.32901555
0.4578945 0.97382051 0.33005065
0.45520815 1.0024666 0.3351866
0.47853997 0.97322422 0.33069715
0.48795229 1.0014604 0.32953247
0.46929356 1.002238 0.32935008
0.51335227 0.99214059 0.32796663
0.50470221 0.9609589 0.32230368
0.48305631 0.94438982 0.32364357
0.52510494 1.0024569 0.33526531
0.52524811 0.97330564 0.33028051
0.53312314 0.96787912 0.32892904
0.54634577 1.0016321 0.32936996
0.58073884 0.99574256 0.32840583
0.57530111 1.0025418 0.33561429
0.56684923 0.98689151 0.32934606
0.60848284 0.97419083 0.32871351
0.60119635 0.97814006 0.33054924
0.60760814 0.93767142 0.32279709
0.62499124 1.0022008 0.33519876
0.63177562 1.0026771 0.32945284
0.62395972 0.99890167 0.32951218
0.6544565 1.0028036 0.33529532
0.67697001 0.98701078 0.32770473
0.65492624 0.98025757 0.32920286
0.68726093 0.97503674 0.32924426
0.6944536 1.0023906 0.33501613
0.70664811 0.97195309 0.32942566
0.71673429 1.002555 0.32939938
0.7241621 1.0025496 0.33541217
0.71101612 1.0012052 0.32888463
0.72250158 0.9924475 0.32877344
0.75487787 1.002746 0.33524773
0.77062196 0.98672146 0.3303352
0.75587845 0.97855389 0.33017471
0.784464 1.0019562 0.33545277
0.772484 0.97127575 0.32871008
0.7842105 0.97386074 0.32901528
0.81472504 1.0023248 0.3349047
0.80134702 1.002606 0.32863173
0.8345961 1.0027891 0.33412442
0.82066137 0.99559915 0.32922032
0.85936946 0.98576593 0.32840422
0.8648749 1.0025643 0.33546475
0.84922367 0.97593611 0.32838714
0.88540781 1.002489 0.33506972
0.87412387 0.96519881 0.32695919
0.8870272 0.96884751 0.32708675
0.91488194 1.0024607 0.33529514
0.89892763 1.0018753 0.3240706
0.93425089 1.0023953 0.33497038
0.94698405 0.99608433 0.32548112
0.95813495 0.97979349 0.32375932
0.9647696 1.0023855 0.33455414
0.97616959 0.96051544 0.32234374
0.98436338 1.0021535 0.33510154
0.98323321 0.96070039 0.32586476
1.0021244 1.0016176 0.33583441
-0.00053329021 -0.001024005 0.34966207
0.0039130747 -0.00069610635 0.34272259
0.016808433 -0.0015439847 0.34445661
0.024972042 -0.00094117783 0.34669456
0.033567823 -0.0014025521 0.34438047
0.04471121 -0.001517396 0.34483296
0.054383583 -0.0010658721 0.34591654
0.063657962 -0.00097619119 0.34475151
0.075850092 -0.0015589742 0.34399283
0.085020751 -0.0011180036 0.34697595
0.094672702 -0.0010445521 0.34492961
0.10454232 -0.00168939 0.34518027
0.11632521 -0.001438411 0.345321
0.12605861 -0.0015060619 0.34496048
0.13454151 -0.0019044684 0.34440467
0.14534362 -0.0016634281 0.343283
0.15499246 -0.0018238742 0.34551519
0.16349077 -0.0019192463 0.34325057
0.17384768 -0.001814001 0.34463072
0.1857118 -0.0020434544 0.34545344
0.19479656 -0.0019020354 0.34377858
0.20469864 -0.0018076783 0.34473935
0.21458744 -0.0018355679 0.34301656
0.22427647 -0.0018662933 0.34536895
0.23562984 -0.0018524318 0.34372875
0.24548346 -0.0017204392 0.34387788
0.25525874 -0.0022092157 0.34449345
0.2656765 -0.0015928214 0.34565598
0.27507168 -0.0017943017 0.34433746
0.28560784 -0.0015809545 0.34319234
0.29357478 -0.00234209 0.34494746
0.30512488 -0.0016965494 0.34308946
0.31505272 -0.0021216078 0.3463133
0.32465023 -0.0019029125 0.34410545
0.33556327 -0.0018882096 0.34415361
0.34491828 -0.0018155575 0.34377101
0.35420579 -0.0023990807 0.34461778
0.36437559 -0.0018208057 0.34396616
0.37527096 -0.0020490706 0.34577137
0.38483915 -0.0020538643 0.34387118
0.39538011 -0.0019472094 0.34511808
0.40412429 -0.0019342857 0.34290826
0.41461775 -0.0016149026 0.34374812
0.42471313 -0.0016144456 0.34386533
0.43531433 -0.0019995943 0.34423018
0.44553486 -0.0013222174 0.34378007
0.45457011 -0.0018068895 0.34444299
0.46481529 -0.0015584499 0.34421411
0.47561574 -0.0019466704 0.34383607
0.48426867 -0.0014833082 0.34451342
0.49438414 -0.0016106905 0.34435031
0.50459558 -0.0016543812 0.34403363
0.51573235 -0.0014837822 0.34451309
0.5243845 -0.0019463388 0.34383631
0.53518546 -0.0015589989 0.34421363
0.5454306 -0.0018066004 0.3444435
0.55446643 -0.0013227261 0.34377962
0.56468636 -0.0019991489 0.34423056
0.575288 -0.0016148165 0.34386504
0.58538312 -0.0016158124 0.34374768
0.5958761 -0.0019351341 0.34290773
0.60462022 -0.001947751 0.3451176
0.61516118 -0.0020543754 0.3438707
0.62472939 -0.0020495877 0.3457709
0.63562471 -0.0018215344 0.34396553
0.64579427 -0.0023993936 0.34461769
0.65508217 -0.0018170439 0.34377009
0.66443706 -0.0018891565 0.34415293
0.67534935 -0.0019031558 0.34410554
0.68494767 -0.0021223323 0.34631285
0.69487453 -0.0016968785 0.34308955
0.70642531 -0.0023423415 0.3449471
0.71439189 -0.0015810654 0.34319198
0.72492808 -0.0017942752 0.34433734
0.73432302 -0.0015924638 0.34565586
0.74474096 -0.0022089616 0.34449369
0.75451672 -0.0017215802 0.34387723
0.76436996 -0.0018527745 0.34372869
0.77572316 -0.0018664165 0.3453691
0.78541261 -0.0018361351 0.34301639
0.79530102 -0.0018085899 0.34473905
0.80520284 -0.0019028652 0.34377846
0.8142879 -0.0020440249 0.34545335
0.82615197 -0.0018143018 0.34463048
0.83650893 -0.0019191056 0.34325045
0.84500742 -0.0018234383 0.34551519
0.85465622 -0.0016635108 0.34328273
0.86629266 -0.0017479749 0.34447142
0.87483245 -0.0018152627 0.34521765
0.88306081 -0.0014244276 0.3447535
0.89545715 -0.0016901288 0.34518036
0.9053275 -0.0010453135 0.34493053
0.91497916 -0.0011181848 0.3469761
0.92413843 -0.0017041664 0.34417138
0.93634212 -0.00097583234 0.34475183
0.94561648 -0.0010654661 0.3459169
0.95528865 -0.0015180361 0.34483278
0.96643192 -0.001402925 0.34438094
0.97502792 -0.00094088167 0.34669527
0.98475194 -0.0015330289 0.34482303
0.99475813 -0.0013623191 0.34183586
1.0007573 -0.00069662975 0.34699112
-0.0018183674 0.0049288431 0.34456974
0.15382393 0.048125222 0.33098564
0.12261275 0.12456787 0.33214182
0.13281015 0.27600527 0.32473019
0.060756721 0.00087710889 0.33669552
0.061662383 0.019786827 0.33537576
0.14056614 0.03351678 0.34040046
0.27990514 0.179178 0.33340842
0.12465101 0.15397906 0.33675444
0.15415171 0.00089252036 0.33610263
0.20117909 0.024369819 0.33243069
0.233325 0.059291374 0.33995655
0.20334302 0.06687402 0.34092963
0.23906171 0.16038285 0.33831382
0.22186811 0.00097850466 0.33975503
0.23437455 0.0015903491 0.33869538
0.10608067 0.10894974 0.33527035
0.15049347 0.061776452 0.34277767
0.1535174 0.1178956 0.34095633
0.25497124 0.09892533 0.34055313
0.27081114 0.0011693444 0.34320095
0.22395705 0.045268226 0.34049356
0.16158876 0.13487506 0.3408193
0.16027278 0.22542597 0.3394638
0.20963199 0.22167708 0.33940601
0.22706193 0.0012641379 0.34426233
0.23476391 0.003052766 0.34297854
0.22016668 0.0087343063 0.34295404
0.20517832 0.11598288 0.3433744
0.24301982 0.1206505 0.34294733
0.3010377 0.2349766 0.34070507
0.30635712 0.00041245206 0.3442851
0.30346504 0.045660779 0.34429759
0.3253296 0.0015668042 0.34555206
0.33479255 0.0012982254 0.34480473
0.3442809 0.0014948735 0.34488592
0.35350221 0.0015099993 0.34545463
0.36475772 0.001515889 0.34474143
0.37568459 0.0013921515 0.34449407
0.38525909 0.0014559155 0.34625047
0.39664668 0.0013535265 0.34520361
0.4066065 0.0013751537 0.34546575
0.4167819 0.0014466345 0.34511566
0.42501333 0.001304077 0.34452167
0.43400311 0.0013436675 0.34601289
0.44349438 0.0013177097 0.34445268
0.45385048 0.0014632879 0.344511
0.46505791 0.0014958754 0.34508067
0.47424495 0.001438434 0.34571037
0.48514977 0.001334265 0.34496823
0.49547726 0.0013608187 0.34471223
0.5045234 0.0013608312 0.34471223
0.51485056 0.001334563 0.34496835
0.52575475 0.0014392672 0.34571022
0.53494328 0.001496327 0.34508082
0.54615021 0.0014625255 0.344511
0.55650538 0.0013171866 0.34445277
0.56599689 0.001343688 0.34601289
0.5749867 0.0013040826 0.3445217
0.58321887 0.0014456175 0.34511542
0.59339404 0.0013744807 0.34546551
0.60335308 0.0013541505 0.34520352
0.61474115 0.001455615 0.34625003
0.62431574 0.0013917327 0.34449396
0.63524199 0.0015163124 0.34474081
0.64649737 0.0015107443 0.34545416
0.65572035 0.001494159 0.34488547
0.6652078 0.0012976613 0.34480461
0.67467248 0.0015655496 0.34555188
0.6852569 0.0015191366 0.34479451
0.69436997 0.0013126465 0.34427673
0.70413923 0.0015169752 0.34582064
0.71597034 0.0015490596 0.34418204
0.72653139 0.0015540426 0.34533879
0.73597121 0.0013931878 0.34453642
0.74436867 0.001635854 0.34501496
0.75460136 0.0016532076 0.34586063
0.7651484 0.0014823348 0.34484366
0.77515835 0.0014469366 0.34496167
0.78405702 0.0014260549 0.34595522
0.794267 0.001528787 0.34503961
0.80507791 0.0015058166 0.3454552
0.81533223 0.0013768262 0.34448415
0.82474989 0.001479872 0.34543246
0.83572531 0.0014848027 0.34541273
0.84599078 0.0015429324 0.3441619
0.85684788 0.0015360814 0.34479889
0.86612177 0.0014918244 0.34555623
0.87592161 0.0015680015 0.34482861
0.88565332 0.0014878055 0.34496704
0.89485359 0.0015255067 0.34564379
0.90557599 0.0013838597 0.34449095
0.91635537 0.0014900031 0.34504429
0.92541671 0.0014711146 0.34522179
0.93543088 0.0013982763 0.34513322
0.9451896 0.001337793 0.34507868
0.95551425 0.0013753069 0.3457064
0.96523142 0.0013563931 0.34480888
0.97519785 0.0013201425 0.34478101
0.98531353 0.0013621224 0.34517717
0.99535775 0.0013808995 0.34495893
1.0022887 0.0050260872 0.34517175
0.16210648 0.012345633 0.33495128
3.7416816e-005 0.010192148 0.34868151
1.0029821 0.014572441 0.34419709
-0.0022534665 0.024895862 0.34527123
0.00017783046 0.022602119 0.34342512
1.003096 0.024684951 0.34500536
0.067923501 0.10123827 0.33953792
1.0028845 0.035309516 0.34439453
-0.0024594218 0.045101538 0.34479156
1.0029664 0.045015682 0.34453186
0.002164657 0.22282723 0.33237195
0.00019804388 0.054200694 0.34661183
1.0027769 0.054510903 0.34504634
-0.0024069999 0.064392164 0.34568959
2.8043985e-005 0.069036029 0.34127322
1.0026751 0.064414412 0.3451699
-0.0015477508 0.13197885 0.34025094
1.0031682 0.074575253 0.34480447
-0.0025446182 0.085605048 0.34556276
0.00041380525 0.086915366 0.34816936
1.0031731 0.085092135 0.34460011
0.098132566 0.17683868 0.33076754
1.0030097 0.094640709 0.34502733
-0.0024619699 0.10412466 0.34412828
2.194941e-005 0.10398517 0.34569716
1.0030949 0.10485824 0.34610873
0.088574454 0.12731388 0.33882785
1.0032151 0.11453964 0.34547019
-0.0018478306 0.12520646 0.34390351
0.99999869 0.12138119 0.34285265
1.0028248 0.12483387 0.34562749
-0.0020564701 0.13438901 0.34527189
1.0027044 0.13600799 0.34386259
0.11782181 0.12021478 0.3337357
0.00047776103 0.14289761 0.34061021
1.0031281 0.14498788 0.34497425
-0.0022042531 0.15534064 0.34555814
1.2725592e-005 0.15872937 0.34395498
1.0030516 0.156836 0.34517372
0.050427075 0.15330128 0.34011063
0.0015935898 0.1627965 0.34189749
1.0033438 0.16510276 0.34519047
-0.0028797192 0.17586753 0.34425777
0.0014900081 0.17419027 0.34655488
0.9984901 0.17656198 0.34548044
1.0033238 0.17529406 0.34461513
-0.0025428813 0.18524747 0.34456742
0.0011567641 0.18199326 0.34388047
0.99848557 0.184679 0.34449601
1.0033084 0.18429928 0.3460986
0.099108063 0.29939526 0.33353442
0.0013687089 0.19417362 0.34174383
0.99848318 0.1928349 0.3435092
1.0028436 0.19473439 0.34556368
-0.002713016 0.20453782 0.3459841
0.00091598928 0.2035263 0.34434375
0.99801862 0.20425713 0.34266889
1.0032176 0.20478752 0.34409118
0.074272968 0.27163783 0.33975467
0.0012712665 0.21764109 0.34376752
0.99778455 0.21463677 0.34163129
1.003047 0.21528643 0.34417772
-0.0033126166 0.22496928 0.34570116
0.0014461884 0.22437826 0.34447712
0.99708772 0.22102755 0.34150821
1.0032773 0.22537339 0.34543788
-0.0028525521 0.23509823 0.34486708
0.001826223 0.23478538 0.3440848
0.99708235 0.23035708 0.34026957
1.002993 0.23573764 0.34557968
0.1402403 0.30779877 0.33345464
0.0019871593 0.24402921 0.34648666
0.99847144 0.24214107 0.349067
1.0029866 0.24495758 0.34458426
-0.0029259506 0.25418305 0.34474584
0.0017275317 0.25461811 0.34644556
0.99828434 0.25478187 0.34797257
1.0031489 0.25508684 0.34440115
-0.0029248465 0.26562965 0.34553453
0.0011541372 0.26466092 0.34528813
0.99756777 0.2658959 0.34623498
1.0027303 0.26487428 0.34445983
0.068896919 0.2869702 0.33962518
0.0014088936 0.27412909 0.34424767
0.99811977 0.2743105 0.34569275
1.0029707 0.27464271 0.3445285
-0.0027418358 0.28409392 0.34599441
0.0014051001 0.28421924 0.34437928
0.99776947 0.28250349 0.34528691
1.0029587 0.28485572 0.34498155
-0.0023162279 0.29505795 0.34547812
0.0015644953 0.29427618 0.34613085
0.9976117 0.29274639 0.34576988
1.0029421 0.29466558 0.34466714
-0.0032001352 0.30538327 0.34460151
0.001517843 0.30586421 0.34521803
0.99748981 0.30369398 0.34543818
1.0031348 0.30522734 0.34505022
-0.002606502 0.3048692 0.33678502
0.0015307877 0.31629056 0.34568381
0.99790764 0.31549919 0.34440395
1.0025953 0.31461626 0.34528145
-0.0028121653 0.32649395 0.34393048
0.0017203951 0.32617664 0.34576759
0.99761307 0.3244988 0.34816197
1.0027494 0.3254264 0.34551558
-0.0027501546 0.33563361 0.34483325
0.0017037176 0.33442041 0.34504649
0.9975462 0.33504206 0.34830236
1.0026894 0.3358188 0.34519491
0.020418594 0.32896447 0.34083545
0.0018887926 0.34448972 0.34540018
0.99766684 0.34542525 0.34818235
1.0020623 0.34520686 0.34571728
-0.0023703987 0.35590363 0.34386006
0.0019470945 0.35437787 0.34572172
0.99788707 0.35584551 0.34596917
1.0027776 0.35528576 0.34531406
-0.0026340499 0.36542836 0.34450176
0.0020745643 0.3640421 0.34591734
0.99805528 0.36523458 0.34608006
1.0028024 0.36491138 0.34385309
-0.0024506531 0.37495548 0.34482557
0.0017043001 0.37503827 0.34529459
0.99779731 0.3732346 0.34484902
1.0027188 0.3750332 0.34510109
0.033936467 0.35781911 0.33927378
0.0019301955 0.38559604 0.34509125
0.99797821 0.38375434 0.3450022
1.0027721 0.38585359 0.34536985
-0.0025600614 0.39524686 0.34517708
0.001907798 0.39592117 0.34581667
0.99766874 0.3939788 0.34498847
1.0025686 0.39471653 0.34470847
-0.0028961599 0.40606144 0.34444126
0.0019422931 0.40545243 0.34620157
0.99809498 0.40486807 0.34577462
1.0029178 0.40608424 0.34502205
-0.0028129679 0.41637936 0.34560198
0.0019571683 0.4145031 0.34601277
0.99761629 0.41551551 0.34494001
1.0026944 0.4150416 0.34493995
0.023985041 0.45301864 0.34103331
0.0021415867 0.42536014 0.34547436
0.99784815 0.42539403 0.34703439
1.0024799 0.4243049 0.34576285
-0.0029474562 0.4346039 0.34435186
0.0018865642 0.43525991 0.34591389
0.99791175 0.43382922 0.3466886
1.0025146 0.43414876 0.3456164
-0.0026332324 0.44445339 0.34537345
0.0021739986 0.44518074 0.34513694
0.99784333 0.44539011 0.34590131
1.0029106 0.44436762 0.34541973
-0.0026861003 0.4547092 0.34488565
0.0019559101 0.45531198 0.34501716
0.99784267 0.45462114 0.34693128
1.0026256 0.45422503 0.34460279
-0.0023636315 0.48497486 0.34067622
0.0017227557 0.4650993 0.34645286
0.99782246 0.46502286 0.3474901
1.0026985 0.46440449 0.3447414
-0.0029612158 0.47492784 0.34490946
0.0018787601 0.47575179 0.3466073
0.99770087 0.4735806 0.34443492
1.0027441 0.47590035 0.34495759
-0.0026463366 0.48500887 0.3443518
0.0015290622 0.48407203 0.34485808
0.99790472 0.48565039 0.34543222
1.0026536 0.48473749 0.34484842
-0.0029117768 0.49470329 0.34405735
0.0018012887 0.4939594 0.34416419
0.997765 0.49554187 0.34468314
1.0028312 0.49496001 0.34478423
-0.0021524876 0.51061237 0.3408882
0.0015607071 0.50451255 0.34509215
0.99781293 0.50543815 0.34646007
1.0025094 0.50519407 0.3449766
-0.0027802358 0.51607537 0.34378955
0.0017347571 0.51548856 0.3447096
0.99773997 0.51626194 0.34620219
1.0029089 0.51596183 0.34482238
-0.002762361 0.52447695 0.34445834
0.0017283985 0.52444404 0.34387535
0.99762166 0.52464497 0.34730232
1.0026287 0.52408409 0.34519514
-0.0025509833 0.53482312 0.34528035
0.0019522259 0.53421575 0.3456082
0.99789268 0.53432828 0.3451812
1.0024296 0.53448504 0.34499818
-0.0025564884 0.54459983 0.34572834
0.0019557062 0.54454589 0.34572995
0.99800062 0.54503244 0.34507161
1.0027964 0.54505974 0.34525502
0.045119345 0.54748434 0.34103706
0.0017919978 0.55461121 0.34505987
0.99812841 0.55528879 0.34635019
1.0026354 0.55515969 0.34511769
-0.0023667079 0.5665192 0.34551337
0.0018221141 0.56558543 0.34494898
0.99775743 0.56508029 0.34589046
1.0026274 0.56522262 0.34498677
-0.0029378738 0.5758751 0.34483162
0.0019292436 0.57580835 0.34515664
0.99810934 0.57499951 0.34730825
1.0026129 0.57533419 0.34513733
-0.0024733809 0.58423883 0.3450298
0.0018884282 0.58524466 0.34539697
0.99825239 0.58350265 0.3471055
1.0026581 0.58490366 0.34545448
-0.0028440692 0.59455186 0.34514377
0.001796504 0.59574771 0.3455576
0.99812305 0.59488308 0.34587786
1.0023637 0.59549451 0.34528103
-0.0020139385 0.58452004 0.34087741
0.001624949 0.60477316 0.34490284
0.99830896 0.60485095 0.34453735
1.0023414 0.60486436 0.34424838
-0.0030075118 0.61474907 0.34515914
0.0020956618 0.61400265 0.34530127
0.99777144 0.61554641 0.34406409
1.0027536 0.61603898 0.3451522
-0.0021235282 0.62519109 0.34489349
0.0017515919 0.62521714 0.34525967
0.9979496 0.6245783 0.34543195
1.0023429 0.62539732 0.34468609
-0.0027078958 0.63473779 0.34449571
0.0017605785 0.63567775 0.34522924
0.99777383 0.63487786 0.34563473
1.0026939 0.63591534 0.34417331
-0.0026325833 0.64492565 0.34463307
0.0016274158 0.64504361 0.34604877
0.9976185 0.64636207 0.3437534
1.0027598 0.6459384 0.3445957
0.015842473 0.62307489 0.34052855
0.0017475926 0.65459323 0.34545928
0.99750775 0.65434575 0.34620759
1.0024889 0.65568495 0.34524381
-0.0026844593 0.66548926 0.34454677
0.0016297087 0.66455835 0.34529001
0.99764818 0.66397285 0.3471258
1.0023292 0.66541886 0.34486622
-0.0030499818 0.67487514 0.34452179
0.0017053658 0.67436975 0.34608039
0.99791068 0.67383891 0.34786355
1.0025702 0.67530775 0.34533405
-0.0023512701 0.68446475 0.34484479
0.0016504035 0.68394935 0.34570116
0.99757713 0.68417329 0.34717178
1.0023127 0.68590283 0.3456744
-0.0027530498 0.69486928 0.34468889
0.0015073002 0.69432008 0.34503791
0.99801809 0.69505441 0.34552217
1.0025845 0.69530606 0.34551203
-0.0023905348 0.70544714 0.34588653
0.0015164703 0.70490706 0.34537882
0.99772042 0.70727092 0.34500256
1.0022887 0.7050842 0.34532863
0.019007213 0.68147087 0.34039286
0.0015173809 0.71432942 0.34629118
0.99815291 0.71631533 0.34429371
1.0024214 0.71553314 0.34444284
-0.0026328545 0.72483361 0.34558004
0.001294171 0.72476673 0.34610283
0.99793804 0.72575456 0.34561548
1.0024804 0.7249732 0.34456205
-0.0020329065 0.73414308 0.34558657
0.0012369631 0.73486787 0.34552696
0.99775589 0.73503333 0.34592786
1.002317 0.73456341 0.34470174
-0.0027568585 0.74394846 0.34486824
0.0016510747 0.74470067 0.3459608
0.99793434 0.74499786 0.34447777
1.0027738 0.74507064 0.34408602
-0.0025767635 0.75488138 0.34565362
0.0016883634 0.75578803 0.34622231
0.99835074 0.75509369 0.34607503
1.0025998 0.7547887 0.34489864
-0.0023989966 0.765616 0.34493881
0.0017203441 0.76624298 0.34613505
0.99816149 0.76532352 0.34718674
1.0023052 0.76500803 0.34489739
0.028166363 0.78600097 0.33973834
0.0016605566 0.77455282 0.3449218
0.99770242 0.77544695 0.34621328
1.002557 0.77518022 0.34558803
-0.0025421367 0.78530824 0.34435049
0.0015978698 0.78539026 0.34708586
0.99805856 0.78523815 0.34657338
1.0025814 0.7859484 0.34502676
-0.0022757705 0.79512179 0.34411266
0.001878924 0.79432732 0.34552088
0.99809593 0.7954362 0.34482414
1.0023439 0.7957142 0.34499216
-0.0025235415 0.80541104 0.34540683
0.0015590232 0.80455303 0.34594551
0.99800074 0.80637515 0.34594005
1.0023845 0.80525374 0.3450273
-0.0030500423 0.81520855 0.34505555
0.001605103 0.81526816 0.34524146
0.997917 0.81464785 0.34547496
1.0022323 0.81574261 0.34561312
-0.0024318795 0.8256079 0.34471318
0.0017011325 0.825562 0.34473565
0.99799216 0.82450897 0.34580725
1.0024526 0.82551652 0.34552696
-0.002421052 0.84087849 0.34056601
0.001712929 0.8348791 0.34450418
0.99801874 0.834557 0.34570906
1.0026946 0.83523798 0.34557608
-0.0024781274 0.84416837 0.34485507
0.0018075469 0.84476924 0.3448
0.99797612 0.84476244 0.34600845
1.0025703 0.84528202 0.34548771
-0.0021020977 0.85484958 0.34535301
0.001656028 0.85510188 0.34523821
0.99812877 0.85468769 0.34700161
1.0027235 0.85506094 0.34541285
-0.0025132613 0.86483878 0.34455547
0.0018156995 0.86420828 0.34471825
0.99815112 0.86572665 0.34649253
1.00258 0.86485791 0.3451812
-0.0022086226 0.87459576 0.34474921
0.0015989061 0.87464082 0.34461024
0.99803776 0.87645131 0.34584656
1.0025814 0.87519896 0.34507334
-0.0027855157 0.88475513 0.34497651
0.0016318619 0.88470536 0.34490171
0.99800986 0.88331294 0.34497747
1.0023863 0.88462055 0.34520006
-0.0023865486 0.89468747 0.34521744
0.0015636228 0.89533138 0.34513128
0.99800217 0.89392024 0.34555623
1.0030123 0.89518303 0.34598303
-0.0025949455 0.90416753 0.3451117
0.0015207775 0.90497941 0.34523955
0.99810719 0.90452158 0.34589371
1.0025843 0.90433127 0.34567329
-0.0023327183 0.90718544 0.34062043
0.001543095 0.91515523 0.34537229
0.99809331 0.91497928 0.34556413
1.0022988 0.91426998 0.34641215
-0.002352267 0.92472738 0.34513339
0.0014616388 0.92504948 0.34533939
0.99822855 0.92494655 0.34471491
1.0024091 0.9248786 0.34526405
-0.0022612843 0.93466216 0.34440276
0.0014254153 0.93417561 0.34569868
0.99794716 0.93462819 0.34574071
1.0023403 0.93430728 0.3443864
-0.0025554672 0.94509965 0.34449366
0.0013631044 0.94488209 0.34580579
0.99808395 0.94437134 0.34589314
1.0022666 0.94495833 0.34479535
-0.0024621715 0.95529348 0.34462824
0.0014582529 0.95529622 0.34569016
0.99830008 0.95407438 0.34563789
1.0025904 0.954992 0.34444401
-0.0023725203 0.96502572 0.34522012
0.0014074339 0.96497577 0.34478283
0.99825358 0.96381891 0.34519711
1.0022874 0.96442354 0.34464103
-0.0024899382 0.9753086 0.34516856
0.051331151 0.90848601 0.33575469
0.99813223 0.97508079 0.34486544
1.0022439 0.97461301 0.3444263
0.045290481 0.96455395 0.34108758
0.0015469973 0.98525733 0.34544665
0.99836969 0.98528832 0.34496436
1.0027151 0.98492062 0.34413716
-0.0019618585 0.99569499 0.34405839
0.096134387 0.89594311 0.33517492
0.9982422 0.99540168 0.34544995
1.0022461 0.99427247 0.34447178
-0.0024130936 1.0015371 0.34540507
0.12778088 0.89760685 0.31948155
0.24257712 0.99034995 0.30472663
0.1332316 0.97258705 0.32150173
0.18747351 0.88369364 0.31115693
0.083825096 0.96620053 0.33121169
0.11117885 0.9499585 0.32502404
0.14765058 0.99125797 0.32272226
0.14155523 0.95309973 0.31814507
0.17694056 0.88705885 0.31057444
0.1781821 0.87833732 0.30830917
0.14160055 0.93911272 0.32987332
0.21272589 0.93789607 0.30672157
0.19685557 0.95431417 0.31814867
0.18989909 0.95952702 0.32468063
0.19015454 0.89491963 0.31765738
0.19407183 0.91392666 0.3176125
0.19628596 0.97409391 0.32312664
0.21935794 0.94323051 0.31343499
0.2076019 0.9691568 0.32723933
0.24149632 0.92716014 0.31867859
0.25955513 0.94275504 0.32062295
0.28904036 0.9695642 0.31582209
0.27445713 0.9696734 0.31593612
0.26012084 0.96658462 0.32896265
0.32976747 0.91612667 0.30827865
0.27706599 0.93067354 0.32062188
0.29582378 0.94859874 0.32336855
0.30788699 0.97220546 0.32198042
0.35301012 0.95321333 0.31066602
0.30604297 0.94871747 0.31644124
0.35092741 0.91112244 0.30677125
0.34915924 0.92443126 0.31875271
0.34434241 0.94874203 0.32299581
0.35621923 0.94415855 0.32077509
0.36780733 0.96821076 0.31787273
0.36978024 0.96364528 0.31897941
0.39025509 0.95872873 0.32901007
0.39113036 0.92493045 0.31103528
0.38723588 0.90317851 0.31150123
0.39607391 0.91423678 0.31550628
0.40478384 0.96949929 0.31499681
0.42286396 0.96867859 0.31937966
0.40238139 0.95803833 0.31836367
0.41849726 0.94347477 0.31764588
0.44858354 0.93732929 0.31772
0.4397184 0.96108156 0.3190363
0.46671236 0.94627374 0.3215456
0.47712147 0.97063053 0.31915137
0.45681965 0.9705261 0.31885269
0.46901277 0.96717024 0.32706782
0.47954738 0.94655222 0.31792668
0.51382238 0.94343913 0.31865245
0.50795645 0.97056818 0.32469255
0.51017177 0.94634992 0.32117534
0.50925231 0.92250788 0.31178054
0.5255425 0.96778399 0.31695688
0.53225237 0.95457351 0.31723216
0.55430311 0.96970773 0.32384169
0.54878139 0.95725948 0.3189241
0.55915546 0.94965523 0.32018816
0.57870692 0.91435409 0.31376559
0.58790374 0.9352811 0.31597826
0.59309363 0.94764668 0.31564853
0.62001646 0.97456056 0.32758939
0.63063407 0.96646166 0.31758401
0.62824917 0.9684872 0.3231394
0.62173229 0.96094364 0.31936416
0.6348539 0.95567971 0.32169253
0.66344583 0.94766897 0.32158372
0.65465146 0.94756585 0.31554705
0.68018597 0.94296211 0.31968799
0.6816898 0.96096981 0.3094525
0.69628233 0.97174746 0.32582906
0.72170997 0.97213775 0.31584951
0.72626132 0.96800637 0.32247958
0.70710641 0.94740689 0.31634867
0.72898537 0.96452105 0.33082613
0.7490291 0.94223124 0.31810692
0.75183064 0.97070909 0.32491457
0.74140024 0.94314051 0.31822118
0.75407135 0.94612318 0.32020172
0.78891629 0.97905391 0.33019224
0.75166368 0.94885927 0.31090474
0.8069818 0.97766966 0.3293573
0.78449237 0.96465075 0.31848425
0.82955223 0.96598524 0.32374081
0.8576504 0.97465545 0.32732761
0.86958617 0.94250697 0.31658673
0.87833208 0.94536155 0.31567419
0.87830186 0.93886763 0.32613668
0.86801177 0.91821498 0.30848032
0.90276802 0.97131795 0.3252494
0.89693326 0.97048885 0.31716031
0.91903484 0.96330237 0.31994072
0.92710871 0.98617113 0.31714633
0.90855962 0.98174262 0.32560787
0.94673485 0.99391824 0.32989329
0.91670197 0.96327728 0.32071209
0.96487027 0.99351251 0.32796934
0.98242873 0.95231962 0.33369747
1.0023484 1.0020978 0.34583431
0.0082690148 -0.00078790978 0.35524791
0.015657552 -0.00066921115 0.35623366
0.02377728 -0.001219706 0.35387549
0.034548517 -0.001178758 0.35558349
0.044940263 -0.0010657019 0.35439074
0.055095639 -0.0013804473 0.35523075
0.06509383 -0.0014606084 0.35516903
0.075001054 -0.0012989821 0.35483524
0.084322624 -0.0014494557 0.35609302
0.096233569 -0.0014862525 0.35440937
0.10527942 -0.00095401745 0.3568196
0.11410123 -0.0017224662 0.35352755
0.12530008 -0.001629008 0.35347265
0.13533185 -0.0019739137 0.35445896
0.14420271 -0.0018828384 0.35433871
0.15432385 -0.0018914454 0.35397157
0.16476066 -0.0018141798 0.35348719
0.17519173 -0.0017167067 0.35512924
0.1846396 -0.0019103033 0.35381213
0.19540727 -0.0018721304 0.35411382
0.20534565 -0.0019829415 0.35507965
0.21507116 -0.0018611 0.35367212
0.22447862 -0.0018321996 0.35404781
0.23403676 -0.001718808 0.35316896
0.24541624 -0.0019197661 0.35359764
0.25419757 -0.0020406554 0.35343495
0.26419044 -0.0018356002 0.35440934
0.274187 -0.0021245563 0.35459131
0.28409654 -0.0017653555 0.35380742
0.29595864 -0.0018570103 0.35479736
0.30546102 -0.0018831305 0.35346961
0.31430036 -0.0018747896 0.35483176
0.32487145 -0.0019040063 0.35375378
0.33442205 -0.0022295765 0.35261196
0.34483203 -0.001969646 0.35478213
0.35554847 -0.0016947624 0.35324538
0.36506763 -0.0020615018 0.35425207
0.37507328 -0.0020427674 0.35267469
0.3845534 -0.0021165106 0.35474384
0.39479095 -0.0019283667 0.35254464
0.40569991 -0.0018070638 0.35477102
0.41617775 -0.0023695058 0.35460374
0.42421874 -0.0015299296 0.35378513
0.43438917 -0.0017173928 0.35260674
0.44533941 -0.0016083129 0.35437846
0.45579284 -0.0017982088 0.35250765
0.46576566 -0.0014536722 0.35371235
0.47529852 -0.0017982638 0.35250863
0.48541513 -0.0017968649 0.35504135
0.49412045 -0.0016777548 0.35449946
0.50457364 -0.0017158025 0.35380521
0.51458567 -0.0017965715 0.35504141
0.52470219 -0.0017979117 0.35250857
0.53423524 -0.0014533263 0.35371244
0.54420799 -0.0017976044 0.3525078
0.55466175 -0.001608707 0.35437813
0.56561154 -0.0017178995 0.35260662
0.57578206 -0.0015315613 0.35378394
0.58382237 -0.0023702881 0.3546035
0.59430069 -0.0018085744 0.35477009
0.60520941 -0.0019294238 0.35254407
0.61544698 -0.0021175621 0.35474327
0.62492716 -0.0020436295 0.35267413
0.63493258 -0.002062086 0.35425165
0.64445204 -0.0016958044 0.35324448
0.65516829 -0.0019703717 0.35478148
0.66557807 -0.0022303239 0.35261175
0.67512906 -0.001904522 0.3537533
0.68569934 -0.0018748762 0.35483149
0.69453853 -0.0018833587 0.35346937
0.7040413 -0.0018572223 0.35479689
0.71590316 -0.0017654909 0.35380703
0.72581309 -0.0021250257 0.35459077
0.73580915 -0.0018355149 0.35440961
0.74580252 -0.0020410931 0.35343453
0.75458336 -0.0019196225 0.35359779
0.76596326 -0.0017192707 0.35316876
0.77552128 -0.0018331086 0.35404733
0.7849282 -0.0018614933 0.35367227
0.79465407 -0.0019837725 0.35507938
0.80459231 -0.0018726289 0.35411358
0.81535995 -0.0019107411 0.35381189
0.824808 -0.0017166971 0.35512891
0.83523941 -0.0018136292 0.35348701
0.84567612 -0.0018913522 0.35397166
0.85579711 -0.0018826239 0.35433891
0.86445004 -0.0019025845 0.3542842
0.87469971 -0.0016294271 0.35347265
0.88542545 -0.0018290165 0.3536514
0.89472055 -0.00095452293 0.35682014
0.90376633 -0.001486979 0.35440931
0.91567701 -0.0014497921 0.35609326
0.92499876 -0.0012991838 0.35483533
0.93534982 -0.001649051 0.35523862
0.94490445 -0.001380124 0.35523102
0.95505977 -0.001065304 0.35439104
0.96545154 -0.001178544 0.35558364
0.9762224 -0.0012203133 0.35387558
0.9849993 -0.0014055268 0.35548359
0.99173087 -0.00078763999 0.35524857
1.0041534 -0.0010250919 0.35455817
-0.0025301659 0.0043287599 0.35455978
0.24880265 0.026668895 0.33727631
0.11462655 0.056680121 0.34711197
0.15826064 0.20186825 0.33971912
0.069447026 0.00077676127 0.34350392
0.13639958 0.013452842 0.33627495
0.12259287 0.056717254 0.34614635
0.137622 0.19075631 0.33843744
0.11415505 0.11061817 0.34726959
0.11587151 0.0013975786 0.350104
0.11057898 0.012523598 0.3479996
0.089545012 0.065200716 0.34706077
0.097812362 0.10356452 0.34712738
0.19442843 0.34919569 0.33629671
0.18087359 0.0011583148 0.35153681
0.19720832 0.0015042784 0.35035172
0.32379237 0.071477175 0.34684628
0.25841323 0.081785165 0.35085797
0.38156849 0.2450203 0.34405845
0.31095147 0.17246923 0.34555429
0.36899674 0.00086132402 0.34806356
0.47098684 0.037164513 0.34396651
0.31321448 0.068280637 0.34990704
0.3345001 0.11355344 0.3513326
0.22162677 0.10841673 0.35080996
0.23172183 0.0012469507 0.35264096
0.24598786 0.0085030058 0.35265324
0.31844124 0.010685833 0.35099182
0.5654332 0.18493246 0.3467145
0.44406834 0.18687055 0.35042304
0.30220884 0.16840622 0.34995317
0.30788121 0.0010542949 0.3534376
0.31377107 0.0012837237 0.35327336
0.43643564 0.021592915 0.35366759
0.41033399 0.044323787 0.35465866
0.51057988 0.16009498 0.35242096
0.4144299 0.35675722 0.35083112
0.44127405 0.47326893 0.33533964
0.42142859 0.00057697354 0.35388592
0.38665718 0.0014541596 0.35691908
0.39616811 0.0014368463 0.35498419
0.40537316 0.0013751438 0.35297784
0.41461742 0.0013803418 0.35398707
0.42386347 0.0013174288 0.35527644
0.43394852 0.0013108462 0.35481313
0.44477949 0.0012962807 0.35406297
0.45602649 0.0014249183 0.3541815
0.46538609 0.0013114531 0.35464817
0.47317106 0.0013652419 0.35653651
0.48384196 0.0014454275 0.35574692
0.49456301 0.0014939457 0.3550919
0.50543803 0.0014935092 0.35509178
0.5161581 0.0014454214 0.35574692
0.52682924 0.0013667818 0.3565366
0.53461391 0.0013114624 0.3546482
0.5439741 0.001424284 0.3541815
0.55522054 0.0012955008 0.35406291
0.56605148 0.0013108507 0.35481313
0.57613659 0.0013174586 0.35527644
0.58538312 0.0013796538 0.35398683
0.59462738 0.0013744807 0.35297763
0.60383201 0.0014369432 0.35498393
0.61334246 0.0014547389 0.35691872
0.62490648 0.0014095318 0.3542029
0.6340332 0.0013378374 0.35567915
0.64291728 0.0014068366 0.35509419
0.65344501 0.0014340281 0.35457808
0.66367936 0.0015900959 0.35557574
0.67575639 0.0015717419 0.35559794
0.68407106 0.0014514342 0.35546467
0.6942575 0.0014472583 0.354929
0.70404673 0.0014674239 0.35514161
0.71404296 0.0015082471 0.35472161
0.72477078 0.0014458065 0.35436481
0.73495281 0.0013551321 0.35567757
0.74435681 0.0015461987 0.35510191
0.75520891 0.0015382631 0.35476822
0.76639807 0.0015659152 0.35488302
0.77585828 0.0015225366 0.35573524
0.78434968 0.0015570486 0.35388845
0.79530543 0.0014493256 0.3554714
0.80514956 0.0014973492 0.35539332
0.81614894 0.0015020149 0.35593089
0.8247143 0.001529502 0.35439378
0.83385712 0.0014868259 0.3550505
0.84471267 0.0014452015 0.35436049
0.85508585 0.0014715373 0.35476771
0.86442733 0.0014259025 0.35537344
0.87474602 0.0013563305 0.35493231
0.8848151 0.0014242306 0.35487235
0.89421862 0.00150578 0.354844
0.90445364 0.0014649618 0.35488698
0.91427016 0.0016520302 0.35463595
0.92457962 0.0015243309 0.35477987
0.93555737 0.0014066088 0.35461551
0.94591212 0.0014644002 0.35523763
0.95609134 0.0013694377 0.355129
0.96590465 0.0013684606 0.35571697
0.97523481 0.0014368144 0.3554242
0.98423415 0.0013327269 0.3541289
0.99568599 0.0012546572 0.35467419
1.0030665 0.0043803472 0.35515037
0.12272155 0.011656131 0.34586865
1.0025678 0.013706629 0.35483015
-0.0017264377 0.023500588 0.35533142
3.4049153e-005 0.027260311 0.35877445
1.0027434 0.023859808 0.35482863
0.099041373 0.12825404 0.34057996
0.00035393238 0.034282535 0.35527843
1.0026877 0.034714211 0.35475576
-0.0020130128 0.045469172 0.35582235
3.1992793e-005 0.040814422 0.3530958
1.002389 0.045347515 0.35542595
0.0092704017 0.14095204 0.34723052
1.0028757 0.05458758 0.35520214
-0.0025440725 0.065557137 0.35565683
0.00040128827 0.066854537 0.35770434
1.0031769 0.064567417 0.35486737
0.18013698 0.19916238 0.34050849
2.618134e-005 0.073738061 0.35784185
1.0028262 0.075411074 0.35452715
-0.0020742486 0.085135803 0.35542676
2.3931265e-005 0.088648893 0.35185426
1.0031997 0.086073928 0.35468829
0.088969611 0.13307424 0.34612837
1.002558 0.09466707 0.35582599
-0.0018077133 0.1047755 0.35398102
1.0031117 0.1052591 0.3557792
0.074824817 0.13734616 0.34291756
1.0029342 0.11468542 0.35561436
-0.0021810026 0.12366918 0.3545211
0.00024098903 0.12355173 0.35365102
1.0034266 0.12451418 0.35492405
-0.0023249418 0.13430691 0.35579094
1.0029857 0.13392466 0.35523435
0.06472671 0.13159178 0.34816965
1.5318394e-005 0.14174396 0.35047677
1.0032114 0.14406359 0.35530671
-0.0021671779 0.15585886 0.3550604
0.00051778555 0.1586086 0.35293931
1.0035064 0.15501721 0.35454956
0.10618279 0.14131312 0.34382686
1.0031655 0.1650326 0.35528138
-0.0026302624 0.17556499 0.35494399
0.0013704449 0.17334309 0.35814792
0.99849474 0.17643903 0.35680151
1.003545 0.17571014 0.35543555
-0.0027567183 0.18522145 0.35509822
0.0011529535 0.18510848 0.35527414
0.99849242 0.1845147 0.35585135
1.0030905 0.18555516 0.35486868
0.053678147 0.25196335 0.34871504
0.0012442432 0.19562624 0.35557887
0.99848789 0.19262905 0.35489443
1.0029585 0.19492742 0.35542104
-0.0026129081 0.20434444 0.35539797
0.0013770331 0.20513277 0.35490647
0.99848437 0.20487832 0.35345337
1.0032436 0.20486376 0.35484013
0.064069264 0.26332039 0.34897974
0.0013801791 0.21587333 0.35525349
0.99848086 0.21720617 0.35200292
1.0026952 0.21500053 0.35366455
-0.0030365773 0.22530806 0.35409513
0.0013829209 0.22307387 0.35548657
0.99847847 0.22547761 0.35102987
1.003458 0.22435001 0.35510758
-0.0033079812 0.23447207 0.35503921
0.0011334842 0.23522596 0.35373482
0.99847388 0.23378927 0.35004964
1.0030708 0.23500419 0.35565627
-0.0029744983 0.27073833 0.34866348
0.0013864785 0.24465045 0.35182482
0.99710733 0.24492545 0.35939777
1.0028409 0.24400993 0.35509509
-0.0026786691 0.25558493 0.35386276
0.0013901629 0.25562513 0.35216591
0.99793249 0.25464827 0.35819811
1.0026572 0.25474259 0.35480174
-0.0027740146 0.26518875 0.35428199
0.0018510533 0.26386088 0.35196838
0.99714649 0.26521134 0.35636291
1.0029722 0.26552758 0.35448125
-0.0027363875 0.28487077 0.35041088
0.0020092614 0.27370656 0.35296693
0.99800843 0.27598625 0.35602054
1.0031812 0.27470264 0.35534617
-0.0029820176 0.28415892 0.35596681
0.0017631175 0.28666565 0.35371616
0.99800646 0.28474551 0.35529369
1.0030725 0.28428626 0.35560924
-0.0027156649 0.29407969 0.35481998
0.001776089 0.29553774 0.35453314
0.99811947 0.29514661 0.35496593
1.0030307 0.29506177 0.35469419
-0.0026629572 0.30459496 0.35558149
0.00154371 0.30466139 0.3540895
0.9977234 0.30626819 0.35378572
1.0030569 0.3047528 0.35494819
0.043150917 0.30957347 0.35076889
0.0018339542 0.31477916 0.35459316
0.99799699 0.31685245 0.35275859
1.0028287 0.31516179 0.35456043
-0.0026279457 0.32610682 0.35493019
0.001782421 0.32527119 0.35565338
0.99845928 0.3260079 0.35347447
1.0025479 0.32568559 0.35455829
-0.0029212448 0.33534631 0.35544014
0.0017231002 0.3358494 0.35507542
0.99815387 0.33471069 0.35537428
1.0035797 0.33532467 0.35441652
0.026115449 0.32513964 0.34971306
0.0018332857 0.34625211 0.35585248
0.99857879 0.34443659 0.35718116
1.0026915 0.34516704 0.35401306
-0.0029372349 0.35485944 0.35457048
0.0016190801 0.35576433 0.35571569
0.99774706 0.35482016 0.35498965
1.0030104 0.35472673 0.35486203
-0.0024996842 0.36516896 0.35492525
0.0017882166 0.36535025 0.35627735
0.99758512 0.36523485 0.35465357
1.0028652 0.36467132 0.35408866
-0.0032765125 0.37647912 0.3555831
0.0017200999 0.37411594 0.35627452
0.99749088 0.37614176 0.35574386
1.0029618 0.37499735 0.35453767
0.026088728 0.36380228 0.35042119
0.0019583497 0.3839874 0.35712695
0.99758935 0.38644806 0.35507417
1.0030049 0.38540524 0.35417923
-0.0028464152 0.39514253 0.35543436
0.0020898422 0.39431372 0.35759833
0.99788344 0.39706835 0.35503244
1.0029513 0.39517698 0.35444441
-0.0025104235 0.40497333 0.35477373
0.0021224711 0.4046402 0.35671127
0.9973644 0.40677291 0.355937
1.0027398 0.40530491 0.3544417
-0.0027515125 0.41562715 0.35481635
0.0021519342 0.41558588 0.35500219
0.99765605 0.41534179 0.35665172
1.0026436 0.41528925 0.35432583
0.025026521 0.45627344 0.34907633
0.0020134654 0.42533836 0.35599247
0.9974975 0.42469937 0.35653254
1.0026242 0.42498463 0.3551138
-0.0022542952 0.43523702 0.35496807
0.0019464461 0.43558115 0.3560037
0.99789852 0.43402609 0.35527274
1.0028008 0.43487823 0.35409859
-0.002621846 0.4451119 0.35505906
0.0020651668 0.44565535 0.35581073
0.99799222 0.44426724 0.35598773
1.0026652 0.44483066 0.35448071
-0.0030728872 0.45481262 0.35463718
0.0018736398 0.45396125 0.35623059
0.99824947 0.45671448 0.35600233
1.0028625 0.45456931 0.35434854
0.050611369 0.48738486 0.34897906
0.0020113075 0.4653188 0.35593751
0.99796939 0.46566793 0.35592359
1.00251 0.46494088 0.35514766
-0.0027740558 0.47411418 0.35466528
0.0020608471 0.47656623 0.35542339
0.99807882 0.47453201 0.35390896
1.0027424 0.47505999 0.35538986
-0.0027798121 0.48395661 0.35505867
0.0020979806 0.48570484 0.35357195
0.99808621 0.48507309 0.35471544
1.0029099 0.4851535 0.35517833
-0.0025714701 0.49416032 0.35524702
0.001993068 0.49428898 0.35472405
0.99764055 0.49449331 0.35532284
1.0028878 0.49473006 0.3552233
0.034327358 0.50935024 0.35201344
0.0019490871 0.50451899 0.35438445
0.9982776 0.50390273 0.355369
1.0026497 0.50516105 0.35511124
-0.0030603788 0.51472354 0.35541046
0.0019433987 0.51506835 0.35375565
0.99817133 0.51454365 0.3546555
1.0025446 0.51477826 0.35531926
-0.0024888874 0.52596945 0.3555508
0.0022016068 0.52491975 0.35405144
0.9978174 0.52497303 0.35336614
1.002681 0.52376294 0.35547215
-0.0027770123 0.53457254 0.35509983
0.0018703993 0.53584039 0.35421821
0.9978717 0.53500414 0.3542577
1.0026003 0.53467566 0.35480589
-0.0024390852 0.54575151 0.35481432
0.001749808 0.54624724 0.35472199
0.99798775 0.54509258 0.35555443
1.0027628 0.54504001 0.35538253
